0.35 5.54378 5.54378 2 1 0
0.347373 5.50909 5.50909 1 1 0
0.344737 5.47425 5.47425 1 1 0
0.339443 5.40409 5.40409 1 1 0
0.328772 5.26211 5.26211 1 1 0
0.312593 5.04554 5.04554 1 1 0
0.295455 4.81466 4.81466 2 1 0
0.270734 4.47936 4.47936 2 1 0
0.236149 4.00664 4.00664 2 1 0
0.201416 3.52852 3.52852 2 1 0
0.166636 3.04699 3.04699 2 1 0
0.131875 2.5634 2.5634 2 1 0
0.097189 2.07884 2.07884 2 1 0
0.0626428 1.5944 1.5944 2 1 0
0.0283526 1.1118 1.1118 2 1 0
-0.00535153 0.635649 0.635649 2 1 0
0.295455 4.81466 4.81466 4 2 0
0.295512 4.82231 4.80852 3 2 0
0.295512 4.82242 4.80842 3 2 0
0.295509 4.84299 4.78763 4 2 0
0.295493 4.88373 4.74565 4 2 0
0.295422 4.96359 4.66014 3 2 0
0.295214 5.07893 4.52767 3 2 0
0.294725 5.23148 4.33579 3 2 0
0.293996 5.37446 4.13522 3 2 0
0.293023 5.50755 3.92659 3 2 0
0.291794 5.63153 3.71061 3 2 0
0.290295 5.7459 3.48807 3 2 0
0.288502 5.85119 3.25984 3 2 0
0.286381 5.94688 3.0269 3 2 0
0.28388 6.03301 2.79035 3 2 0
0.280924 6.11197 2.55155 3 2 0
0.27739 6.17979 2.31228 3 2 0
0.273095 6.23637 2.07524 3 2 0
0.267774 6.27945 1.84485 3 2 0
0.26116 6.30833 1.62846 3 2 0
0.253217 6.3225 1.42919 3 2 0
0.244234 6.32549 1.24639 3 2 0
0.23459 6.31831 1.08518 3 2 0
0.224576 6.30451 0.946222 3 2 0
0.214391 6.28525 0.817604 3 2 0
0.204172 6.26138 0.711605 3 2 0
0.194014 6.23619 0.610226 3 2 0
0.183988 6.21202 0.524904 3 2 0
0.174144 6.18113 0.451413 3 2 0
0.16452 6.15385 0.387409 3 2 0
0.155144 6.12526 0.329319 3 2 0
0.146035 6.09196 0.281596 3 2 0
0.137209 6.06174 0.236679 3 2 0
0.12867 6.03009 0.200319 3 2 0
0.120424 5.99362 0.16994 3 2 0
0.112478 5.96208 0.142912 3 2 0
0.104819 5.92803 0.120408 3 2 0
0.0974474 5.8927 0.0997426 3 2 0
0.0903557 5.85119 0.0831084 3 2 0
0.0835361 5.81899 0.0691228 3 2 0
0.0769678 5.77718 0.0570688 3 2 0
0.0706522 5.73998 0.047122 3 2 0
0.0645819 5.69485 0.0385224 3 2 0
0.058699 5.65401 0.0315217 3 2 0
0.0530665 5.6059 0.0258113 3 2 0
0.0476074 5.55926 0.0209049 3 2 0
0.0423101 5.50328 0.0166937 3 2 0
0.0372172 5.45153 0.0134066 3 2 0
0.0322831 5.38934 0.0107035 3 2 0
0.027369 5.32792 0.00842437 3 2 0
0.0226928 5.25635 0.00663492 3 2 0
0.0181346 5.17887 0.00516736 3 2 0
0.0136838 5.0998 0.00400712 3 2 0
0.00931187 5.0038 0.00308946 3 2 0
0.0050013 4.90297 0.00235171 3 2 0
0.000791347 4.78519 0.00178204 3 2 0
-0.00332048 4.65495 0.00135331 3 2 0
