0.65 5.84467 5.84467 2 1 0
0.649233 5.83773 5.83773 1 1 0
0.648465 5.83078 5.83078 1 1 0
0.646931 5.8169 5.8169 1 1 0
0.643864 5.78912 5.78912 1 1 0
0.637735 5.73354 5.73354 1 1 0
0.628173 5.64666 5.64666 1 1 0
0.618625 5.55973 5.55973 1 1 0
0.609091 5.47277 5.47277 1 1 0
0.59957 5.38577 5.38577 1 1 0
0.590061 5.29875 5.29875 1 1 0
0.580563 5.2117 5.2117 1 1 0
0.571076 5.12462 5.12462 1 1 0
0.568798 5.1037 5.1037 2 1 0
0.559322 5.01661 5.01661 2 1 0
0.549855 4.92949 4.92949 2 1 0
0.540397 4.84237 4.84237 2 1 0
0.530946 4.75522 4.75522 2 1 0
0.521502 4.66807 4.66807 2 1 0
0.512065 4.58091 4.58091 2 1 0
0.502635 4.49373 4.49373 2 1 0
0.49321 4.40655 4.40655 2 1 0
0.483791 4.31936 4.31936 2 1 0
0.474377 4.23216 4.23216 2 1 0
0.464968 4.14495 4.14495 2 1 0
0.455564 4.05774 4.05774 2 1 0
0.446165 3.97052 3.97052 2 1 0
0.436769 3.8833 3.8833 2 1 0
0.427378 3.79607 3.79607 2 1 0
0.41799 3.70884 3.70884 2 1 0
0.408606 3.62161 3.62161 2 1 0
0.399225 3.53437 3.53437 2 1 0
0.389848 3.44713 3.44713 2 1 0
0.380473 3.35988 3.35988 2 1 0
0.371101 3.27263 3.27263 2 1 0
0.361732 3.18538 3.18538 2 1 0
0.352366 3.09813 3.09813 2 1 0
0.343001 3.01088 3.01088 2 1 0
0.333639 2.92362 2.92362 2 1 0
0.32428 2.83636 2.83636 2 1 0
0.314922 2.7491 2.7491 2 1 0
0.305566 2.66184 2.66184 2 1 0
0.296212 2.57458 2.57458 2 1 0
0.28686 2.48731 2.48731 2 1 0
0.277509 2.40005 2.40005 2 1 0
0.268159 2.31278 2.31278 2 1 0
0.258811 2.22551 2.22551 2 1 0
0.249464 2.13825 2.13825 2 1 0
0.240119 2.05098 2.05098 2 1 0
0.230774 1.96371 1.96371 2 1 0
0.221431 1.87644 1.87644 2 1 0
0.212088 1.78918 1.78918 2 1 0
0.202746 1.70191 1.70191 2 1 0
0.193404 1.61464 1.61464 2 1 0
0.184063 1.52738 1.52738 2 1 0
0.174723 1.44011 1.44011 2 1 0
0.165383 1.35285 1.35285 2 1 0
0.156043 1.26559 1.26559 2 1 0
0.146704 1.17833 1.17833 2 1 0
0.137364 1.09107 1.09107 2 1 0
0.128025 1.00381 1.00381 2 1 0
0.118686 0.916564 0.916564 2 1 0
0.109347 0.829318 0.829318 2 1 0
0.100008 0.742077 0.742077 2 1 0
0.0906697 0.654845 0.654845 2 1 0
0.0813329 0.567622 0.567622 2 1 0
0.0719989 0.480412 0.480412 2 1 0
0.0703127 0.464655 0.464655 2 1 0
0.0609862 0.377469 0.377469 1 1 0
0.0516746 0.290313 0.290313 1 1 0
0.0423995 0.203211 0.203211 1 1 0
0.0332419 0.11622 0.11622 1 1 0
0.0249538 0.0296417 0.0296417 1 1 0
0.0243415 0.0156114 0.0156114 1 1 0
0.0257146 0.00530821 0.00530821 2 1 0
0.0276532 0.00287634 0.00287634 2 1 0
0.0319006 0.00124311 0.00124311 2 1 0
0.0371165 0.0006316 0.0006316 2 1 0
0.0424958 0.00037923 0.00037923 2 1 0
0.0484518 0.000244169 0.000244169 2 1 0
0.0550167 0.000165289 0.000165289 2 1 0
0.064872 0.000103593 0.000103593 2 1 0
0.0796597 6.04054e-05 6.04054e-05 2 1 0
0.0959283 3.83053e-05 3.83053e-05 2 1 0
0.120332 2.25868e-05 2.25868e-05 2 1 0
0.156938 1.24525e-05 1.24525e-05 2 1 0
0.197205 7.64078e-06 7.64078e-06 2 1 0
0.257605 4.35351e-06 4.35351e-06 2 1 0
0.348206 2.39137e-06 2.39137e-06 2 1 0
0.484107 1.38492e-06 1.38492e-06 2 1 0
0.627781 7.12813e-07 7.12813e-07 2 1 0
0.771455 7.00638e-07 7.00638e-07 2 1 0
0.915129 4.54117e-07 4.54117e-07 2 1 0
1.0588 2.47648e-07 2.47648e-07 2 1 0
0.568798 5.1037 5.1037 4 2 0
0.568824 5.11045 5.09743 4 2 0
0.568824 5.11351 5.09435 3 2 0
0.568813 5.13932 5.06805 4 2 0
0.568751 5.19011 5.01458 3 2 0
0.568561 5.26417 4.93224 3 2 0
0.568057 5.37038 4.80411 3 2 0
0.566919 5.50774 4.61746 3 2 0
0.565272 5.63313 4.42174 3 2 0
0.563116 5.74756 4.21828 3 2 0
0.560446 5.85053 4.00844 3 2 0
0.557257 5.94194 3.79372 3 2 0
0.553538 6.02212 3.57484 3 2 0
0.549273 6.09116 3.35442 3 2 0
0.544442 6.14902 3.13488 3 2 0
0.539025 6.1959 2.9184 3 2 0
0.533003 6.23312 2.70865 3 2 0
0.526369 6.25903 2.50847 3 2 0
0.519138 6.27357 2.32065 3 2 0
0.511352 6.27707 2.1455 3 2 0
0.503087 6.27004 1.98698 3 2 0
0.494438 6.25342 1.84588 3 2 0
0.485503 6.22847 1.72165 3 2 0
0.476366 6.1964 1.61274 3 2 0
0.467091 6.15564 1.51431 3 2 0
0.457723 6.11272 1.42199 3 2 0
0.448293 6.06546 1.3395 3 2 0
0.438821 6.0146 1.26689 3 2 0
0.429325 5.95871 1.19748 3 2 0
0.419815 5.89916 1.13149 3 2 0
0.4103 5.83997 1.07304 3 2 0
0.400788 5.77452 1.01643 3 2 0
0.391285 5.70571 0.96244 3 2 0
0.381796 5.63517 0.913074 3 2 0
0.372327 5.56073 0.867886 3 2 0
0.362881 5.48292 0.821979 3 2 0
0.353462 5.4021 0.78138 3 2 0
0.344076 5.3176 0.739718 3 2 0
0.334724 5.22951 0.701444 3 2 0
0.325412 5.13638 0.666999 3 2 0
0.316142 5.0439 0.632472 3 2 0
0.306918 4.94776 0.599026 3 2 0
0.297743 4.84782 0.568058 3 2 0
0.288619 4.74415 0.539242 3 2 0
0.279551 4.63658 0.512342 3 2 0
0.270541 4.52476 0.485138 3 2 0
0.261591 4.40891 0.460619 3 2 0
0.252705 4.28899 0.435858 3 2 0
0.243883 4.16723 0.412992 3 2 0
0.235128 4.04109 0.391897 3 2 0
0.226441 3.9108 0.371466 3 2 0
0.217824 3.77609 0.352143 3 2 0
0.209277 3.63791 0.333883 3 2 0
0.2008 3.4956 0.316445 3 2 0
0.192393 3.34925 0.300361 3 2 0
0.184055 3.19911 0.284986 3 2 0
0.175784 3.045 0.27048 3 2 0
0.167577 2.88673 0.256899 3 2 0
0.159431 2.72528 0.244223 3 2 0
0.151341 2.56012 0.232581 3 2 0
0.143302 2.38924 0.222241 3 2 0
0.135307 2.21728 0.212972 3 2 0
0.127347 2.04194 0.204258 3 2 0
0.119414 1.8632 0.197391 3 2 0
0.111499 1.68148 0.192928 3 2 0
0.1036 1.49674 0.190356 3 2 0
0.0957307 1.30869 0.193273 3 2 0
0.0879682 1.11563 0.205818 3 2 0
0.0805673 0.916229 0.23701 3 2 0
0.074201 0.711378 0.301227 3 2 0
0.0704923 0.510073 0.423041 3 2 0
0.0703163 0.471083 0.458302 3 2 0
0.0729634 0.661536 0.324301 3 2 0
0.0791619 0.875117 0.246845 3 2 0
0.0865353 1.07891 0.209827 3 2 0
0.0942964 1.27454 0.194653 3 2 0
0.102168 1.46435 0.190823 3 2 0
0.110067 1.65006 0.19185 3 2 0
0.11798 1.83242 0.196444 3 2 0
0.12591 2.01166 0.203547 3 2 0
0.133864 2.18773 0.211061 3 2 0
0.141853 2.36055 0.220975 3 2 0
0.149884 2.52996 0.230908 3 2 0
0.157964 2.69583 0.242043 3 2 0
0.166099 2.85802 0.254305 3 2 0
0.174295 3.01641 0.26764 3 2 0
0.182554 3.17088 0.281905 3 2 0
0.19088 3.32135 0.296908 3 2 0
0.199274 3.46773 0.313011 3 2 0
0.207738 3.60997 0.330148 3 2 0
0.216272 3.74992 0.348464 3 2 0
0.224877 3.88584 0.367376 3 2 0
0.233551 4.01767 0.387387 3 2 0
0.242293 4.1452 0.409006 3 2 0
0.251103 4.26893 0.431173 3 2 0
0.259979 4.38855 0.454766 3 2 0
0.268917 4.50436 0.480046 3 2 0
0.277917 4.61608 0.505954 3 2 0
0.286974 4.72383 0.533723 3 2 0
0.296088 4.82815 0.563766 3 2 0
0.305254 4.92831 0.593429 3 2 0
0.314469 5.02736 0.62537 3 2 0
0.323731 5.12184 0.65919 3 2 0
0.333036 5.21397 0.69546 3 2 0
0.342381 5.30243 0.733492 3 2 0
0.351761 5.38706 0.772134 3 2 0
0.361174 5.46868 0.815475 3 2 0
0.370615 5.54687 0.857938 3 2 0
0.380081 5.62184 0.90414 3 2 0
0.389566 5.69346 0.953381 3 2 0
0.399067 5.76181 1.00733 3 2 0
0.408577 5.82754 1.06093 3 2 0
0.418091 5.88954 1.12124 3 2 0
0.427602 5.94824 1.18485 3 2 0
0.437101 6.00456 1.25198 3 2 0
0.446577 6.0564 1.32568 3 2 0
0.456014 6.10438 1.40775 3 2 0
0.465392 6.1491 1.49467 3 2 0
0.474683 6.18799 1.59107 3 2 0
0.483843 6.22119 1.70035 3 2 0
0.492814 6.24805 1.82506 3 2 0
0.501516 6.26649 1.96168 3 2 0
0.509854 6.2757 2.11424 3 2 0
0.517734 6.27501 2.28515 3 2 0
0.525074 6.26281 2.4707 3 2 0
0.531824 6.23934 2.66944 3 2 0
0.537962 6.2044 2.87863 3 2 0
0.543492 6.15829 3.09397 3 2 0
0.54843 6.10104 3.3132 3 2 0
0.552798 6.03378 3.53326 3 2 0
0.556616 5.95659 3.75269 3 2 0
0.559902 5.86793 3.96909 3 2 0
0.562666 5.76753 4.18083 3 2 0
0.564916 5.65557 4.38571 3 2 0
0.566656 5.53174 4.58252 3 2 0
0.567888 5.39625 4.77072 3 2 0
0.56861 5.24902 4.94933 3 2 0
0.568821 5.12348 5.08427 3 2 0
0.568506 5.27956 4.91442 3 2 0
0.567681 5.42447 4.73373 3 2 0
0.566348 5.55757 4.54341 3 2 0
0.564506 5.67876 4.34458 3 2 0
0.562153 5.78869 4.13852 3 2 0
0.559285 5.88691 3.92665 3 2 0
0.555894 5.97361 3.71017 3 2 0
0.551968 6.04991 3.49035 3 2 0
0.547489 6.115 3.26998 3 2 0
0.542436 6.16801 3.051 3 2 0
0.536788 6.21199 2.83695 3 2 0
0.530531 6.24472 2.63045 3 2 0
0.523665 6.26603 2.4343 3 2 0
0.516214 6.27593 2.25176 3 2 0
0.508235 6.27497 2.08277 3 2 0
0.499811 6.26244 1.93086 3 2 0
0.491041 6.2422 1.7963 3 2 0
0.48202 6.21424 1.67808 3 2 0
0.472823 6.1804 1.57445 3 2 0
0.463508 6.13991 1.47843 3 2 0
0.454113 6.09441 1.3896 3 2 0
0.444665 6.04818 1.31073 3 2 0
0.435182 5.995 1.24059 3 2 0
0.425679 5.93814 1.17174 3 2 0
0.416167 5.87836 1.10817 3 2 0
0.406652 5.81476 1.0516 3 2 0
0.397143 5.74775 0.995522 3 2 0
0.387645 5.67728 0.946319 3 2 0
0.378163 5.60552 0.895161 3 2 0
0.368702 5.53051 0.848393 3 2 0
0.359266 5.45135 0.804878 3 2 0
0.349859 5.36832 0.764494 3 2 0
0.340486 5.28168 0.727292 3 2 0
0.331149 5.19122 0.687849 3 2 0
0.321852 5.10018 0.653939 3 2 0
0.3126 5.0065 0.619591 3 2 0
0.303394 4.91099 0.586903 3 2 0
0.294238 4.80916 0.556767 3 2 0
0.285136 4.70344 0.52872 3 2 0
0.27609 4.59427 0.501894 3 2 0
0.267102 4.4811 0.476742 3 2 0
0.258176 4.36389 0.450875 3 2 0
0.249314 4.24339 0.427063 3 2 0
0.240518 4.11964 0.404397 3 2 0
0.231789 3.99176 0.383153 3 2 0
0.223128 3.85965 0.364042 3 2 0
0.214538 3.72377 0.344938 3 2 0
0.206018 3.58376 0.326846 3 2 0
0.197568 3.43764 0.310222 3 2 0
0.189188 3.2897 0.294269 3 2 0
0.180876 3.1387 0.279365 3 2 0
0.17263 2.98409 0.264987 3 2 0
0.164447 2.82506 0.251789 3 2 0
0.156323 2.66222 0.239581 3 2 0
0.148253 2.49479 0.228613 3 2 0
0.140232 2.32463 0.21826 3 2 0
0.132251 2.1512 0.209323 3 2 0
0.124302 1.9735 0.201537 3 2 0
0.116377 1.79405 0.195261 3 2 0
0.108469 1.61155 0.191502 3 2 0
0.100577 1.42643 0.190882 3 2 0
0.0927335 1.23601 0.19666 3 2 0
