2.5 4.42754 4.42754 2 1 0
2.46255 4.42857 4.42857 1 1 0
2.42522 4.42958 4.42958 1 1 0
2.35068 4.43161 4.43161 1 1 0
2.20211 4.43578 4.43578 1 1 0
2.00281 4.44163 4.44163 1 1 0
1.78326 4.44846 4.44846 2 1 0
1.45873 4.4595 4.4595 2 1 0
1.02163 4.47691 4.47691 2 1 0
0.611528 4.49793 4.49793 2 1 0
0.257321 4.52558 4.52558 2 1 0
0.123483 4.54441 4.54441 2 1 0
0.0405118 4.57058 4.57058 2 1 0
0.0212236 4.58714 4.58714 2 1 0
0.0117159 4.60499 4.60499 2 1 0
0.00707622 4.62325 4.62325 2 1 0
0.00463589 4.64158 4.64158 2 1 0
0.00313101 4.66172 4.66172 2 1 0
0.00217096 4.68382 4.68382 2 1 0
0.00153783 4.70809 4.70809 2 1 0
0.000993975 4.74442 4.74442 2 1 0
0.000588445 4.79881 4.79881 2 1 0
0.000380724 4.85414 4.85414 2 1 0
0.000253959 4.91383 4.91383 1 1 0
0.000156886 4.98625 4.98625 1 1 0
0.000106538 5.05863 5.05863 1 1 0
8.32955e-05 5.13098 5.13098 1 1 0
6.66528e-05 5.2033 5.2033 1 1 0
5.19546e-05 5.27559 5.27559 1 1 0
4.09785e-05 5.34786 5.34786 1 1 0
3.29709e-05 5.42011 5.42011 1 1 0
2.6915e-05 5.49234 5.49234 1 1 0
2.22053e-05 5.56455 5.56455 1 1 0
1.84874e-05 5.63675 5.63675 1 1 0
1.55148e-05 5.70893 5.70893 1 1 0
1.31093e-05 5.78109 5.78109 1 1 0
1.11416e-05 5.85324 5.85324 1 1 0
9.51675e-06 5.92538 5.92538 1 1 0
8.16362e-06 5.9975 5.9975 1 1 0
7.0282e-06 6.06961 6.06961 1 1 0
6.06894e-06 6.1417 6.1417 1 1 0
5.25349e-06 6.21379 6.21379 1 1 0
4.55641e-06 6.28586 6.28586 1 1 0
3.95748e-06 6.35793 6.35793 1 1 0
3.44049e-06 6.42998 6.42998 1 1 0
2.99234e-06 6.50202 6.50202 1 1 0
2.60235e-06 6.57405 6.57405 1 1 0
2.26177e-06 6.64607 6.64607 1 1 0
1.96336e-06 6.71809 6.71809 1 1 0
1.70112e-06 6.79009 6.79009 1 1 0
1.47003e-06 6.86209 6.86209 1 1 0
1.26588e-06 6.93407 6.93407 1 1 0
1.0851e-06 7.00605 7.00605 1 1 0
9.24689e-07 7.07802 7.07802 1 1 0
7.82066e-07 7.14999 7.14999 1 1 0
6.55036e-07 7.22194 7.22194 1 1 0
5.41714e-07 7.29389 7.29389 1 1 0
4.40472e-07 7.36584 7.36584 1 1 0
3.49907e-07 7.43777 7.43777 1 1 0
2.68797e-07 7.5097 7.5097 1 1 0
1.96082e-07 7.58162 7.58162 1 1 0
1.30836e-07 7.65354 7.65354 1 1 0
7.22476e-08 7.72545 7.72545 1 1 0
1.96067e-08 7.79735 7.79735 1 1 0
-2.77128e-08 7.86925 7.86925 1 1 0
2.00281 4.44163 4.44163 4 2 0
2.00281 4.44813 4.43511 4 2 0
2.00281 4.44823 4.43502 3 2 0
2.00266 4.47419 4.40888 4 2 0
2.00178 4.5258 4.35623 3 2 0
1.99899 4.60237 4.27637 3 2 0
1.99151 4.71522 4.15457 3 2 0
1.9745 4.8679 3.98145 3 2 0
1.94972 5.01677 3.80385 3 2 0
1.91703 5.16156 3.62192 3 2 0
1.8762 5.30166 3.43582 3 2 0
1.82691 5.43742 3.24575 3 2 0
1.76865 5.57016 3.05197 3 2 0
1.70066 5.6986 2.85483 3 2 0
1.62172 5.82339 2.65481 3 2 0
1.52986 5.94761 2.45271 3 2 0
1.42169 6.06952 2.24988 3 2 0
1.29117 6.191 2.04903 3 2 0
1.1281 6.31556 1.85613 3 2 0
0.922333 6.45209 1.68349 3 2 0
0.682837 6.59893 1.5339 3 2 0
0.438982 6.76008 1.41501 3 2 0
0.220331 6.93774 1.32352 3 2 0
0.131609 7.03498 1.29601 3 2 0
0.0588397 7.13733 1.3073 3 2 0
0.0347431 7.18007 1.34572 3 2 0
0.0208678 7.2054 1.40667 3 2 0
0.01374 7.21538 1.47886 3 2 0
0.00973276 7.21644 1.55209 3 2 0
0.00707156 7.20985 1.63243 3 2 0
0.00524566 7.19936 1.72271 3 2 0
0.00395894 7.18158 1.82193 3 2 0
0.00303129 7.15778 1.93129 3 2 0
0.00234973 7.12875 2.05184 3 2 0
0.0018413 7.09073 2.18165 3 2 0
0.00145743 7.04319 2.3234 3 2 0
0.00116511 6.98291 2.47987 3 2 0
0.000941673 6.90901 2.64604 3 2 0
0.000771737 6.81438 2.82396 3 2 0
0.000654792 6.7044 2.9964 3 2 0
0.000574896 6.57829 3.16197 3 2 0
0.000520484 6.44217 3.31978 3 2 0
0.00047931 6.28086 3.4866 3 2 0
0.0004489 6.10701 3.65766 3 2 0
0.000426931 5.92997 3.82635 3 2 0
0.000410724 5.7511 3.99305 3 2 0
0.000398754 5.57263 4.16017 3 2 0
0.000390103 5.39483 4.32823 3 2 0
0.000384208 5.21822 4.49755 3 2 0
0.000380725 5.04265 4.66832 3 2 0
0.00037947 4.86858 4.84063 4 2 0
0.000380376 5.01447 4.69607 3 2 0
0.000380376 5.01449 4.69606 3 2 0
0.000383489 5.18981 4.52514 3 2 0
0.000388976 5.36647 4.35544 3 2 0
0.000397151 5.54424 4.18693 3 2 0
0.000408535 5.72272 4.01927 3 2 0
0.000423974 5.90131 3.85219 3 2 0
0.000444868 6.079 3.68468 3 2 0
0.000473644 6.25397 3.51548 3 2 0
0.000514773 6.42271 3.33989 3 2 0
0.000576661 6.58267 3.15764 3 2 0
0.000673318 6.72454 2.96478 3 2 0
0.000823694 6.84854 2.76148 3 2 0
0.0010568 6.95201 2.55116 3 2 0
0.0014306 7.03853 2.3363 3 2 0
0.00207479 7.10986 2.11711 3 2 0
0.00332412 7.16656 1.89191 3 2 0
0.00628169 7.20638 1.66579 3 2 0
0.016629 7.21172 1.44242 3 2 0
0.0349177 7.17909 1.34603 3 2 0
0.084874 7.09723 1.29437 3 2 0
0.167518 6.99395 1.30286 3 2 0
0.274614 6.88976 1.3394 3 2 0
0.407685 6.7824 1.39656 3 2 0
0.565973 6.67307 1.47179 3 2 0
0.744911 6.55931 1.5685 3 2 0
0.934096 6.44491 1.68971 3 2 0
1.11672 6.32432 1.84486 3 2 0
1.27915 6.20061 2.03333 3 2 0
1.41223 6.07903 2.23453 3 2 0
1.522 5.95719 2.43535 3 2 0
1.61502 5.83335 2.63775 3 2 0
1.6949 5.70679 2.83838 3 2 0
1.7637 5.5797 3.03738 3 2 0
1.82268 5.44821 3.23145 3 2 0
1.87266 5.31253 3.42153 3 2 0
1.91413 5.17266 3.60757 3 2 0
1.94745 5.02862 3.78977 3 2 0
1.97285 4.88016 3.96767 3 2 0
1.99046 4.72736 4.14136 3 2 0
2.00038 4.57018 4.31008 3 2 0
2.00281 4.44589 4.43735 3 2 0
1.99919 4.59815 4.28085 3 2 0
1.99919 4.59821 4.28078 3 2 0
1.98793 4.75462 4.1111 3 2 0
1.96896 4.90661 3.93682 3 2 0
1.94219 5.05422 3.7581 3 2 0
1.90745 5.19737 3.57509 3 2 0
1.86452 5.33664 3.38795 3 2 0
1.81301 5.4716 3.1969 3 2 0
1.75237 5.60241 3.00221 3 2 0
1.68173 5.73109 2.80426 3 2 0
1.59974 5.85572 2.60361 3 2 0
1.50414 5.97743 2.40115 3 2 0
1.39102 6.09965 2.19848 3 2 0
1.25338 6.22112 1.99893 3 2 0
1.08009 6.35045 1.80978 3 2 0
0.863765 6.48832 1.64526 3 2 0
0.620148 6.63791 1.49849 3 2 0
0.380018 6.80288 1.38754 3 2 0
0.172329 6.98829 1.30711 3 2 0
0.0928786 7.08494 1.29305 3 2 0
0.03593 7.17786 1.34359 3 2 0
0.0228516 7.20198 1.39468 3 2 0
0.0159104 7.213 1.45089 3 2 0
0.0113566 7.21628 1.51681 3 2 0
0.00828968 7.21342 1.5893 3 2 0
0.0061691 7.20626 1.67248 3 2 0
0.00466636 7.19241 1.7631 3 2 0
0.0035786 7.17321 1.86263 3 2 0
0.00277691 7.14885 1.97305 3 2 0
0.00217701 7.11784 2.09154 3 2 0
0.00172258 7.0785 2.22013 3 2 0
0.00137508 7.02933 2.36172 3 2 0
0.0011077 6.96795 2.5156 3 2 0
0.000901697 6.89109 2.68246 3 2 0
0.000744279 6.79327 2.85949 3 2 0
0.000635947 6.6803 3.03083 3 2 0
0.0005621 6.55141 3.19469 3 2 0
0.000511667 6.41315 3.35112 3 2 0
0.000473187 6.25142 3.51689 3 2 0
0.000444531 6.07654 3.6872 3 2 0
0.000423724 5.8989 3.85561 3 2 0
0.000408349 5.72031 4.02236 3 2 0
0.000397015 5.54181 4.1896 3 2 0
0.000388881 5.36403 4.35785 3 2 0
0.000383429 5.18735 4.52742 3 2 0
0.000380347 5.01183 4.69845 3 2 0
0.000379473 4.87102 4.83821 4 2 0
0.000379474 4.87223 4.83701 3 2 0
0.000380776 5.04634 4.66472 3 2 0
0.000384306 5.22192 4.49396 3 2 0
0.000390255 5.3988 4.32462 3 2 0
0.000398968 5.57673 4.1565 3 2 0
0.000411016 5.75528 3.98929 3 2 0
0.000427323 5.9338 3.82248 3 2 0
0.000449431 6.11117 3.65495 3 2 0
0.000480042 6.28536 3.48388 3 2 0
0.000524176 6.45241 3.30786 3 2 0
0.000591196 6.61035 3.12456 3 2 0
0.000696089 6.74752 2.9309 3 2 0
0.000858865 6.86756 2.7262 3 2 0
0.001112 6.96923 2.51214 3 2 0
0.00152213 7.05293 2.29589 3 2 0
0.00224144 7.12144 2.07651 3 2 0
0.00367698 7.17621 1.85085 3 2 0
0.0072529 7.2119 1.62444 3 2 0
0.0213135 7.20292 1.40643 3 2 0
0.0492639 7.15393 1.31965 3 2 0
0.115688 7.05519 1.29266 3 2 0
0.215227 6.94402 1.31991 3 2 0
0.341511 6.83317 1.36742 3 2 0
0.495406 6.72078 1.43644 3 2 0
0.673701 6.60427 1.52729 3 2 0
0.867572 6.48609 1.64473 3 2 0
1.06054 6.36336 1.79204 3 2 0
1.23478 6.23603 1.97707 3 2 0
1.3765 6.11447 2.17499 3 2 0
1.49216 5.99255 2.37776 3 2 0
1.58957 5.86922 2.58044 3 2 0
1.67299 5.74353 2.78045 3 2 0
1.74484 5.61711 2.97919 3 2 0
1.80657 5.48675 3.17473 3 2 0
1.85908 5.35206 3.36645 3 2 0
1.90298 5.21358 3.55433 3 2 0
1.93863 5.07072 3.738 3 2 0
1.9663 4.92361 3.91724 3 2 0
1.98615 4.77204 4.09158 3 2 0
1.9983 4.61611 4.26164 3 2 0
2.00278 4.4559 4.4273 4 2 0
2.00278 4.45648 4.42672 3 2 0
1.99966 4.58789 4.29174 3 2 0
1.99966 4.58789 4.29167 3 2 0
1.98889 4.74436 4.12228 3 2 0
1.97043 4.89627 3.9483 3 2 0
1.94417 5.04412 3.76987 3 2 0
1.90996 5.18801 3.58714 3 2 0
1.86757 5.32765 3.40028 3 2 0
1.81663 5.46296 3.20949 3 2 0
1.75661 5.59405 3.01505 3 2 0
1.68666 5.72126 2.81732 3 2 0
1.60547 5.84796 2.61684 3 2 0
1.51085 5.97026 2.41446 3 2 0
1.39903 6.0906 2.21174 3 2 0
1.26329 6.21397 2.01178 3 2 0
1.09269 6.33999 1.82152 3 2 0
0.878993 6.47879 1.65466 3 2 0
0.636234 6.62618 1.50692 3 2 0
0.394972 6.79266 1.39362 3 2 0
